x y z nx ny nz
0.196557 -0.638030 -0.168949 0.000479 -0.011339 0.999936
0.201593 -0.638071 -0.168952 0.000479 -0.011339 0.999936
0.212084 -0.623157 -0.168788 0.000479 -0.011339 0.999936
0.207074 -0.623116 -0.168785 0.000479 -0.011339 0.999936
0.202064 -0.623075 -0.168782 0.000479 -0.011339 0.999936
0.197054 -0.623034 -0.168779 0.000479 -0.011339 0.999936
0.192045 -0.622993 -0.168776 0.000479 -0.011339 0.999936
0.187035 -0.622952 -0.168773 0.000479 -0.011339 0.999936
0.182025 -0.622911 -0.168770 0.000479 -0.011339 0.999936
0.177015 -0.622870 -0.168768 0.000479 -0.011339 0.999936
0.172005 -0.622829 -0.168765 0.000479 -0.011339 0.999936
0.166995 -0.622788 -0.168762 0.000479 -0.011339 0.999936
0.161985 -0.622746 -0.168759 0.000479 -0.011339 0.999936
0.156976 -0.622705 -0.168756 0.000479 -0.011339 0.999936
0.151966 -0.622664 -0.168753 0.000479 -0.011339 0.999936
0.146956 -0.622623 -0.168750 0.000479 -0.011339 0.999936
0.141946 -0.622582 -0.168748 0.000479 -0.011339 0.999936
0.136936 -0.622541 -0.168745 0.000479 -0.011339 0.999936
0.131926 -0.622500 -0.168742 0.000479 -0.011339 0.999936
0.126916 -0.622459 -0.168739 0.000479 -0.011339 0.999936
0.121907 -0.622418 -0.168736 0.000479 -0.011339 0.999936
0.116897 -0.622377 -0.168733 0.000479 -0.011339 0.999936
0.111887 -0.622335 -0.168730 0.000479 -0.011339 0.999936
0.106877 -0.622294 -0.168727 0.000479 -0.011339 0.999936
0.101867 -0.622253 -0.168725 0.000479 -0.011339 0.999936
0.096857 -0.622212 -0.168722 0.000479 -0.011339 0.999936
0.091847 -0.622171 -0.168719 0.000479 -0.011339 0.999936
0.086838 -0.622130 -0.168716 0.000479 -0.011339 0.999936
0.081828 -0.622089 -0.168713 0.000479 -0.011339 0.999936
0.076818 -0.622048 -0.168710 0.000479 -0.011339 0.999936
0.071808 -0.622007 -0.168707 0.000479 -0.011339 0.999936
0.066798 -0.621966 -0.168705 0.000479 -0.011339 0.999936
0.061788 -0.621925 -0.168702 0.000479 -0.011339 0.999936
0.056778 -0.621883 -0.168699 0.000479 -0.011339 0.999936
0.051769 -0.621842 -0.168696 0.000479 -0.011339 0.999936
0.046759 -0.621801 -0.168693 0.000479 -0.011339 0.999936
0.041749 -0.621760 -0.168690 0.000479 -0.011339 0.999936
0.036739 -0.621719 -0.168687 0.000479 -0.011339 0.999936
0.031729 -0.621678 -0.168685 0.000479 -0.011339 0.999936
0.026719 -0.621637 -0.168682 0.000479 -0.011339 0.999936
0.021709 -0.621596 -0.168679 0.000479 -0.011339 0.999936
0.016699 -0.621555 -0.168676 0.000479 -0.011339 0.999936
0.011690 -0.621514 -0.168673 0.000479 -0.011339 0.999936
0.006680 -0.621472 -0.168670 0.000479 -0.011339 0.999936
0.001670 -0.621431 -0.168667 0.000479 -0.011339 0.999936
-0.003340 -0.621390 -0.168664 0.000479 -0.011339 0.999936
-0.008350 -0.621349 -0.168662 0.000479 -0.011339 0.999936
-0.013360 -0.621308 -0.168659 0.000479 -0.011339 0.999936
-0.018370 -0.621267 -0.168656 0.000479 -0.011339 0.999936
-0.023379 -0.621226 -0.168653 0.000479 -0.011339 0.999936
-0.028389 -0.621185 -0.168650 0.000479 -0.011339 0.999936
-0.033399 -0.621144 -0.168647 0.000479 -0.011339 0.999936
-0.038409 -0.621103 -0.168644 0.000479 -0.011339 0.999936
-0.043419 -0.621062 -0.168642 0.000479 -0.011339 0.999936
-0.048429 -0.621020 -0.168639 0.000479 -0.011339 0.999936
-0.053439 -0.620979 -0.168636 0.000479 -0.011339 0.999936
-0.058448 -0.620938 -0.168633 0.000479 -0.011339 0.999936
-0.063458 -0.620897 -0.168630 0.000479 -0.011339 0.999936
-0.068468 -0.620856 -0.168627 0.000479 -0.011339 0.999936
-0.073478 -0.620815 -0.168624 0.000479 -0.011339 0.999936
-0.078488 -0.620774 -0.168621 0.000479 -0.011339 0.999936
-0.083498 -0.620733 -0.168619 0.000479 -0.011339 0.999936
-0.088508 -0.620692 -0.168616 0.000479 -0.011339 0.999936
-0.093517 -0.620651 -0.168613 0.000479 -0.011339 0.999936
-0.098527 -0.620609 -0.168610 0.000479 -0.011339 0.999936
-0.103537 -0.620568 -0.168607 0.000479 -0.011339 0.999936
-0.108547 -0.620527 -0.168604 0.000479 -0.011339 0.999936
-0.113557 -0.620486 -0.168601 0.000479 -0.011339 0.999936
-0.118567 -0.620445 -0.168599 0.000479 -0.011339 0.999936
-0.123577 -0.620404 -0.168596 0.000479 -0.011339 0.999936
-0.128586 -0.620363 -0.168593 0.000479 -0.011339 0.999936
-0.133596 -0.620322 -0.168590 0.000479 -0.011339 0.999936
-0.138606 -0.620281 -0.168587 0.000479 -0.011339 0.999936
-0.143616 -0.620240 -0.168584 0.000479 -0.011339 0.999936
-0.148626 -0.620199 -0.168581 0.000479 -0.011339 0.999936
-0.153636 -0.620157 -0.168578 0.000479 -0.011339 0.999936
-0.158646 -0.620116 -0.168576 0.000479 -0.011339 0.999936
-0.163655 -0.620075 -0.168573 0.000479 -0.011339 0.999936
-0.168665 -0.620034 -0.168570 0.000479 -0.011339 0.999936
-0.173675 -0.619993 -0.168567 0.000479 -0.011339 0.999936
-0.178685 -0.619952 -0.168564 0.000479 -0.011339 0.999936
-0.183695 -0.619911 -0.168561 0.000479 -0.011339 0.999936
-0.188705 -0.619870 -0.168558 0.000479 -0.011339 0.999936
-0.193715 -0.619829 -0.168556 0.000479 -0.011339 0.999936
-0.198724 -0.619788 -0.168553 0.000479 -0.011339 0.999936
-0.203734 -0.619746 -0.168550 0.000479 -0.011339 0.999936
-0.208744 -0.619705 -0.168547 0.000479 -0.011339 0.999936
-0.213754 -0.619664 -0.168544 0.000479 -0.011339 0.999936
-0.218764 -0.619623 -0.168541 0.000479 -0.011339 0.999936
-0.223774 -0.619582 -0.168538 0.000479 -0.011339 0.999936
-0.228784 -0.619541 -0.168535 0.000479 -0.011339 0.999936
-0.233794 -0.619500 -0.168533 0.000479 -0.011339 0.999936
-0.238803 -0.619459 -0.168530 0.000479 -0.011339 0.999936
-0.243813 -0.619418 -0.168527 0.000479 -0.011339 0.999936
-0.248823 -0.619377 -0.168524 0.000479 -0.011339 0.999936
-0.253833 -0.619336 -0.168521 0.000479 -0.011339 0.999936
-0.258843 -0.619294 -0.168518 0.000479 -0.011339 0.999936
-0.263853 -0.619253 -0.168515 0.000479 -0.011339 0.999936
-0.268863 -0.619212 -0.168513 0.000479 -0.011339 0.999936
-0.273872 -0.619171 -0.168510 0.000479 -0.011339 0.999936
-0.278882 -0.619130 -0.168507 0.000479 -0.011339 0.999936
-0.283892 -0.619089 -0.168504 0.000479 -0.011339 0.999936
-0.285304 -0.604078 -0.168333 0.000479 -0.011339 0.999936
-0.280276 -0.604119 -0.168336 0.000479 -0.011339 0.999936
-0.275247 -0.604160 -0.168339 0.000479 -0.011339 0.999936
-0.270218 -0.604202 -0.168342 0.000479 -0.011339 0.999936
-0.265190 -0.604243 -0.168345 0.000479 -0.011339 0.999936
-0.260161 -0.604284 -0.168347 0.000479 -0.011339 0.999936
-0.255132 -0.604325 -0.168350 0.000479 -0.011339 0.999936
-0.250104 -0.604367 -0.168353 0.000479 -0.011339 0.999936
-0.245075 -0.604408 -0.168356 0.000479 -0.011339 0.999936
-0.240046 -0.604449 -0.168359 0.000479 -0.011339 0.999936
-0.235018 -0.604490 -0.168362 0.000479 -0.011339 0.999936
-0.229989 -0.604532 -0.168365 0.000479 -0.011339 0.999936
-0.224960 -0.604573 -0.168368 0.000479 -0.011339 0.999936
-0.219932 -0.604614 -0.168370 0.000479 -0.011339 0.999936
-0.214903 -0.604655 -0.168373 0.000479 -0.011339 0.999936
-0.209874 -0.604697 -0.168376 0.000479 -0.011339 0.999936
-0.204846 -0.604738 -0.168379 0.000479 -0.011339 0.999936
-0.199817 -0.604779 -0.168382 0.000479 -0.011339 0.999936
-0.194788 -0.604820 -0.168385 0.000479 -0.011339 0.999936
-0.189760 -0.604862 -0.168388 0.000479 -0.011339 0.999936
-0.184731 -0.604903 -0.168391 0.000479 -0.011339 0.999936
-0.179702 -0.604944 -0.168393 0.000479 -0.011339 0.999936
-0.174674 -0.604985 -0.168396 0.000479 -0.011339 0.999936
-0.169645 -0.605027 -0.168399 0.000479 -0.011339 0.999936
-0.164616 -0.605068 -0.168402 0.000479 -0.011339 0.999936
-0.159588 -0.605109 -0.168405 0.000479 -0.011339 0.999936
-0.154559 -0.605150 -0.168408 0.000479 -0.011339 0.999936
-0.149531 -0.605192 -0.168411 0.000479 -0.011339 0.999936
-0.144502 -0.605233 -0.168414 0.000479 -0.011339 0.999936
-0.139473 -0.605274 -0.168416 0.000479 -0.011339 0.999936
-0.134445 -0.605315 -0.168419 0.000479 -0.011339 0.999936
-0.129416 -0.605357 -0.168422 0.000479 -0.011339 0.999936
-0.124387 -0.605398 -0.168425 0.000479 -0.011339 0.999936
-0.119359 -0.605439 -0.168428 0.000479 -0.011339 0.999936
-0.114330 -0.605480 -0.168431 0.000479 -0.011339 0.999936
-0.109301 -0.605522 -0.168434 0.000479 -0.011339 0.999936
-0.104273 -0.605563 -0.168437 0.000479 -0.011339 0.999936
-0.099244 -0.605604 -0.168439 0.000479 -0.011339 0.999936
-0.094215 -0.605645 -0.168442 0.000479 -0.011339 0.999936
-0.089187 -0.605687 -0.168445 0.000479 -0.011339 0.999936
-0.084158 -0.605728 -0.168448 0.000479 -0.011339 0.999936
-0.079129 -0.605769 -0.168451 0.000479 -0.011339 0.999936
-0.074101 -0.605810 -0.168454 0.000479 -0.011339 0.999936
-0.069072 -0.605852 -0.168457 0.000479 -0.011339 0.999936
-0.064043 -0.605893 -0.168460 0.000479 -0.011339 0.999936
-0.059015 -0.605934 -0.168462 0.000479 -0.011339 0.999936
-0.053986 -0.605975 -0.168465 0.000479 -0.011339 0.999936
-0.048957 -0.606017 -0.168468 0.000479 -0.011339 0.999936
-0.043929 -0.606058 -0.168471 0.000479 -0.011339 0.999936
-0.038900 -0.606099 -0.168474 0.000479 -0.011339 0.999936
-0.033871 -0.606140 -0.168477 0.000479 -0.011339 0.999936
-0.028843 -0.606182 -0.168480 0.000479 -0.011339 0.999936
-0.023814 -0.606223 -0.168483 0.000479 -0.011339 0.999936
-0.018785 -0.606264 -0.168486 0.000479 -0.011339 0.999936
-0.013757 -0.606305 -0.168488 0.000479 -0.011339 0.999936
-0.008728 -0.606347 -0.168491 0.000479 -0.011339 0.999936
-0.003699 -0.606388 -0.168494 0.000479 -0.011339 0.999936
0.001329 -0.606429 -0.168497 0.000479 -0.011339 0.999936
0.006358 -0.606470 -0.168500 0.000479 -0.011339 0.999936
0.011387 -0.606512 -0.168503 0.000479 -0.011339 0.999936
0.016415 -0.606553 -0.168506 0.000479 -0.011339 0.999936
0.021444 -0.606594 -0.168509 0.000479 -0.011339 0.999936
0.026472 -0.606635 -0.168511 0.000479 -0.011339 0.999936
0.031501 -0.606677 -0.168514 0.000479 -0.011339 0.999936
0.036530 -0.606718 -0.168517 0.000479 -0.011339 0.999936
0.041558 -0.606759 -0.168520 0.000479 -0.011339 0.999936
0.046587 -0.606800 -0.168523 0.000479 -0.011339 0.999936
0.051616 -0.606842 -0.168526 0.000479 -0.011339 0.999936
0.056644 -0.606883 -0.168529 0.000479 -0.011339 0.999936
0.061673 -0.606924 -0.168532 0.000479 -0.011339 0.999936
0.066702 -0.606965 -0.168534 0.000479 -0.011339 0.999936
0.071730 -0.607007 -0.168537 0.000479 -0.011339 0.999936
0.076759 -0.607048 -0.168540 0.000479 -0.011339 0.999936
0.081788 -0.607089 -0.168543 0.000479 -0.011339 0.999936
0.086816 -0.607130 -0.168546 0.000479 -0.011339 0.999936
0.091845 -0.607172 -0.168549 0.000479 -0.011339 0.999936
0.096874 -0.607213 -0.168552 0.000479 -0.011339 0.999936
0.101902 -0.607254 -0.168555 0.000479 -0.011339 0.999936
0.106931 -0.607295 -0.168557 0.000479 -0.011339 0.999936
0.111960 -0.607337 -0.168560 0.000479 -0.011339 0.999936
0.116988 -0.607378 -0.168563 0.000479 -0.011339 0.999936
0.122017 -0.607419 -0.168566 0.000479 -0.011339 0.999936
0.127046 -0.607460 -0.168569 0.000479 -0.011339 0.999936
0.132074 -0.607502 -0.168572 0.000479 -0.011339 0.999936
0.137103 -0.607543 -0.168575 0.000479 -0.011339 0.999936
0.142132 -0.607584 -0.168578 0.000479 -0.011339 0.999936
0.147160 -0.607625 -0.168580 0.000479 -0.011339 0.999936
0.152189 -0.607667 -0.168583 0.000479 -0.011339 0.999936
0.157218 -0.607708 -0.168586 0.000479 -0.011339 0.999936
0.162246 -0.607749 -0.168589 0.000479 -0.011339 0.999936
0.167275 -0.607790 -0.168592 0.000479 -0.011339 0.999936
0.172304 -0.607832 -0.168595 0.000479 -0.011339 0.999936
0.177332 -0.607873 -0.168598 0.000479 -0.011339 0.999936
0.182361 -0.607914 -0.168601 0.000479 -0.011339 0.999936
0.187390 -0.607955 -0.168603 0.000479 -0.011339 0.999936
0.192418 -0.607997 -0.168606 0.000479 -0.011339 0.999936
0.197447 -0.608038 -0.168609 0.000479 -0.011339 0.999936
0.202475 -0.608079 -0.168612 0.000479 -0.011339 0.999936
0.207504 -0.608120 -0.168615 0.000479 -0.011339 0.999936
0.212533 -0.608162 -0.168618 0.000479 -0.011339 0.999936
0.217561 -0.608203 -0.168621 0.000479 -0.011339 0.999936
0.219564 -0.593220 -0.168452 0.000479 -0.011339 0.999936
0.214551 -0.593179 -0.168449 0.000479 -0.011339 0.999936
0.209538 -0.593137 -0.168446 0.000479 -0.011339 0.999936
0.204526 -0.593096 -0.168443 0.000479 -0.011339 0.999936
0.199513 -0.593055 -0.168440 0.000479 -0.011339 0.999936
0.194500 -0.593014 -0.168437 0.000479 -0.011339 0.999936
0.189488 -0.592973 -0.168435 0.000479 -0.011339 0.999936
0.184475 -0.592932 -0.168432 0.000479 -0.011339 0.999936
0.179462 -0.592891 -0.168429 0.000479 -0.011339 0.999936
0.174450 -0.592850 -0.168426 0.000479 -0.011339 0.999936
0.169437 -0.592808 -0.168423 0.000479 -0.011339 0.999936
0.164424 -0.592767 -0.168420 0.000479 -0.011339 0.999936
0.159412 -0.592726 -0.168417 0.000479 -0.011339 0.999936
0.154399 -0.592685 -0.168414 0.000479 -0.011339 0.999936
0.149386 -0.592644 -0.168412 0.000479 -0.011339 0.999936
0.144374 -0.592603 -0.168409 0.000479 -0.011339 0.999936
0.139361 -0.592562 -0.168406 0.000479 -0.011339 0.999936
0.134348 -0.592521 -0.168403 0.000479 -0.011339 0.999936
0.129336 -0.592480 -0.168400 0.000479 -0.011339 0.999936
0.124323 -0.592438 -0.168397 0.000479 -0.011339 0.999936
0.119310 -0.592397 -0.168394 0.000479 -0.011339 0.999936
0.114298 -0.592356 -0.168392 0.000479 -0.011339 0.999936
0.109285 -0.592315 -0.168389 0.000479 -0.011339 0.999936
0.104272 -0.592274 -0.168386 0.000479 -0.011339 0.999936
0.099260 -0.592233 -0.168383 0.000479 -0.011339 0.999936
0.094247 -0.592192 -0.168380 0.000479 -0.011339 0.999936
0.089234 -0.592151 -0.168377 0.000479 -0.011339 0.999936
0.084222 -0.592109 -0.168374 0.000479 -0.011339 0.999936
0.079209 -0.592068 -0.168371 0.000479 -0.011339 0.999936
0.074196 -0.592027 -0.168369 0.000479 -0.011339 0.999936
0.069184 -0.591986 -0.168366 0.000479 -0.011339 0.999936
0.064171 -0.591945 -0.168363 0.000479 -0.011339 0.999936
0.059158 -0.591904 -0.168360 0.000479 -0.011339 0.999936
0.054145 -0.591863 -0.168357 0.000479 -0.011339 0.999936
0.049133 -0.591822 -0.168354 0.000479 -0.011339 0.999936
0.044120 -0.591781 -0.168351 0.000479 -0.011339 0.999936
0.039107 -0.591739 -0.168349 0.000479 -0.011339 0.999936
0.034095 -0.591698 -0.168346 0.000479 -0.011339 0.999936
0.029082 -0.591657 -0.168343 0.000479 -0.011339 0.999936
0.024069 -0.591616 -0.168340 0.000479 -0.011339 0.999936
0.019057 -0.591575 -0.168337 0.000479 -0.011339 0.999936
0.014044 -0.591534 -0.168334 0.000479 -0.011339 0.999936
0.009031 -0.591493 -0.168331 0.000479 -0.011339 0.999936
0.004019 -0.591452 -0.168328 0.000479 -0.011339 0.999936
-0.000994 -0.591410 -0.168326 0.000479 -0.011339 0.999936
-0.006007 -0.591369 -0.168323 0.000479 -0.011339 0.999936
-0.011019 -0.591328 -0.168320 0.000479 -0.011339 0.999936
-0.016032 -0.591287 -0.168317 0.000479 -0.011339 0.999936
-0.021045 -0.591246 -0.168314 0.000479 -0.011339 0.999936
-0.026057 -0.591205 -0.168311 0.000479 -0.011339 0.999936
-0.031070 -0.591164 -0.168308 0.000479 -0.011339 0.999936
-0.036083 -0.591123 -0.168306 0.000479 -0.011339 0.999936
-0.041095 -0.591081 -0.168303 0.000479 -0.011339 0.999936
-0.046108 -0.591040 -0.168300 0.000479 -0.011339 0.999936
-0.051121 -0.590999 -0.168297 0.000479 -0.011339 0.999936
-0.056133 -0.590958 -0.168294 0.000479 -0.011339 0.999936
-0.061146 -0.590917 -0.168291 0.000479 -0.011339 0.999936
-0.066159 -0.590876 -0.168288 0.000479 -0.011339 0.999936
-0.071171 -0.590835 -0.168285 0.000479 -0.011339 0.999936
-0.076184 -0.590794 -0.168283 0.000479 -0.011339 0.999936
-0.081197 -0.590753 -0.168280 0.000479 -0.011339 0.999936
-0.086209 -0.590711 -0.168277 0.000479 -0.011339 0.999936
-0.091222 -0.590670 -0.168274 0.000479 -0.011339 0.999936
-0.096235 -0.590629 -0.168271 0.000479 -0.011339 0.999936
-0.101247 -0.590588 -0.168268 0.000479 -0.011339 0.999936
-0.106260 -0.590547 -0.168265 0.000479 -0.011339 0.999936
-0.111273 -0.590506 -0.168263 0.000479 -0.011339 0.999936
-0.116285 -0.590465 -0.168260 0.000479 -0.011339 0.999936
-0.121298 -0.590424 -0.168257 0.000479 -0.011339 0.999936
-0.126311 -0.590382 -0.168254 0.000479 -0.011339 0.999936
-0.131323 -0.590341 -0.168251 0.000479 -0.011339 0.999936
-0.136336 -0.590300 -0.168248 0.000479 -0.011339 0.999936
-0.141349 -0.590259 -0.168245 0.000479 -0.011339 0.999936
-0.146361 -0.590218 -0.168242 0.000479 -0.011339 0.999936
-0.151374 -0.590177 -0.168240 0.000479 -0.011339 0.999936
-0.156387 -0.590136 -0.168237 0.000479 -0.011339 0.999936
-0.161400 -0.590095 -0.168234 0.000479 -0.011339 0.999936
-0.166412 -0.590054 -0.168231 0.000479 -0.011339 0.999936
-0.171425 -0.590012 -0.168228 0.000479 -0.011339 0.999936
-0.176438 -0.589971 -0.168225 0.000479 -0.011339 0.999936
-0.181450 -0.589930 -0.168222 0.000479 -0.011339 0.999936
-0.186463 -0.589889 -0.168219 0.000479 -0.011339 0.999936
-0.191476 -0.589848 -0.168217 0.000479 -0.011339 0.999936
-0.196488 -0.589807 -0.168214 0.000479 -0.011339 0.999936
-0.201501 -0.589766 -0.168211 0.000479 -0.011339 0.999936
-0.206514 -0.589725 -0.168208 0.000479 -0.011339 0.999936
-0.211526 -0.589683 -0.168205 0.000479 -0.011339 0.999936
-0.216539 -0.589642 -0.168202 0.000479 -0.011339 0.999936
-0.221552 -0.589601 -0.168199 0.000479 -0.011339 0.999936
-0.226564 -0.589560 -0.168197 0.000479 -0.011339 0.999936
-0.231577 -0.589519 -0.168194 0.000479 -0.011339 0.999936
-0.236590 -0.589478 -0.168191 0.000479 -0.011339 0.999936
-0.241602 -0.589437 -0.168188 0.000479 -0.011339 0.999936
-0.246615 -0.589396 -0.168185 0.000479 -0.011339 0.999936
-0.251628 -0.589355 -0.168182 0.000479 -0.011339 0.999936
-0.256640 -0.589313 -0.168179 0.000479 -0.011339 0.999936
-0.261653 -0.589272 -0.168176 0.000479 -0.011339 0.999936
-0.266666 -0.589231 -0.168174 0.000479 -0.011339 0.999936
-0.271678 -0.589190 -0.168171 0.000479 -0.011339 0.999936
-0.276691 -0.589149 -0.168168 0.000479 -0.011339 0.999936
-0.281704 -0.589108 -0.168165 0.000479 -0.011339 0.999936
-0.286716 -0.589067 -0.168162 0.000479 -0.011339 0.999936
-0.288128 -0.574056 -0.167991 0.000479 -0.011339 0.999936
-0.283093 -0.574097 -0.167994 0.000479 -0.011339 0.999936
-0.278057 -0.574138 -0.167997 0.000479 -0.011339 0.999936
-0.273021 -0.574180 -0.168000 0.000479 -0.011339 0.999936
-0.267985 -0.574221 -0.168003 0.000479 -0.011339 0.999936
-0.262950 -0.574262 -0.168006 0.000479 -0.011339 0.999936
-0.257914 -0.574303 -0.168009 0.000479 -0.011339 0.999936
-0.252878 -0.574345 -0.168011 0.000479 -0.011339 0.999936
-0.247842 -0.574386 -0.168014 0.000479 -0.011339 0.999936
-0.242807 -0.574427 -0.168017 0.000479 -0.011339 0.999936
-0.237771 -0.574469 -0.168020 0.000479 -0.011339 0.999936
-0.232735 -0.574510 -0.168023 0.000479 -0.011339 0.999936
-0.227699 -0.574551 -0.168026 0.000479 -0.011339 0.999936
-0.222664 -0.574593 -0.168029 0.000479 -0.011339 0.999936
-0.217628 -0.574634 -0.168032 0.000479 -0.011339 0.999936
-0.212592 -0.574675 -0.168034 0.000479 -0.011339 0.999936
-0.207556 -0.574716 -0.168037 0.000479 -0.011339 0.999936
-0.202521 -0.574758 -0.168040 0.000479 -0.011339 0.999936
-0.197485 -0.574799 -0.168043 0.000479 -0.011339 0.999936
-0.192449 -0.574840 -0.168046 0.000479 -0.011339 0.999936
-0.187413 -0.574882 -0.168049 0.000479 -0.011339 0.999936
-0.182378 -0.574923 -0.168052 0.000479 -0.011339 0.999936
-0.177342 -0.574964 -0.168055 0.000479 -0.011339 0.999936
-0.172306 -0.575006 -0.168057 0.000479 -0.011339 0.999936
-0.167270 -0.575047 -0.168060 0.000479 -0.011339 0.999936
-0.162235 -0.575088 -0.168063 0.000479 -0.011339 0.999936
-0.157199 -0.575130 -0.168066 0.000479 -0.011339 0.999936
-0.152163 -0.575171 -0.168069 0.000479 -0.011339 0.999936
-0.147127 -0.575212 -0.168072 0.000479 -0.011339 0.999936
-0.142092 -0.575253 -0.168075 0.000479 -0.011339 0.999936
-0.137056 -0.575295 -0.168078 0.000479 -0.011339 0.999936
-0.132020 -0.575336 -0.168081 0.000479 -0.011339 0.999936
-0.126984 -0.575377 -0.168083 0.000479 -0.011339 0.999936
-0.121949 -0.575419 -0.168086 0.000479 -0.011339 0.999936
-0.116913 -0.575460 -0.168089 0.000479 -0.011339 0.999936
-0.111877 -0.575501 -0.168092 0.000479 -0.011339 0.999936
-0.106841 -0.575543 -0.168095 0.000479 -0.011339 0.999936
-0.101806 -0.575584 -0.168098 0.000479 -0.011339 0.999936
-0.096770 -0.575625 -0.168101 0.000479 -0.011339 0.999936
-0.091734 -0.575667 -0.168104 0.000479 -0.011339 0.999936
-0.086698 -0.575708 -0.168106 0.000479 -0.011339 0.999936
-0.081663 -0.575749 -0.168109 0.000479 -0.011339 0.999936
-0.076627 -0.575790 -0.168112 0.000479 -0.011339 0.999936
-0.071591 -0.575832 -0.168115 0.000479 -0.011339 0.999936
-0.066555 -0.575873 -0.168118 0.000479 -0.011339 0.999936
-0.061520 -0.575914 -0.168121 0.000479 -0.011339 0.999936
-0.056484 -0.575956 -0.168124 0.000479 -0.011339 0.999936
-0.051448 -0.575997 -0.168127 0.000479 -0.011339 0.999936
-0.046412 -0.576038 -0.168130 0.000479 -0.011339 0.999936
-0.041377 -0.576080 -0.168132 0.000479 -0.011339 0.999936
-0.036341 -0.576121 -0.168135 0.000479 -0.011339 0.999936
-0.031305 -0.576162 -0.168138 0.000479 -0.011339 0.999936
-0.026269 -0.576204 -0.168141 0.000479 -0.011339 0.999936
-0.021234 -0.576245 -0.168144 0.000479 -0.011339 0.999936
-0.016198 -0.576286 -0.168147 0.000479 -0.011339 0.999936
-0.011162 -0.576327 -0.168150 0.000479 -0.011339 0.999936
-0.006126 -0.576369 -0.168153 0.000479 -0.011339 0.999936
-0.001091 -0.576410 -0.168155 0.000479 -0.011339 0.999936
0.003945 -0.576451 -0.168158 0.000479 -0.011339 0.999936
0.008981 -0.576493 -0.168161 0.000479 -0.011339 0.999936
0.014017 -0.576534 -0.168164 0.000479 -0.011339 0.999936
0.019052 -0.576575 -0.168167 0.000479 -0.011339 0.999936
0.024088 -0.576617 -0.168170 0.000479 -0.011339 0.999936
0.029124 -0.576658 -0.168173 0.000479 -0.011339 0.999936
0.034160 -0.576699 -0.168176 0.000479 -0.011339 0.999936
0.039195 -0.576741 -0.168178 0.000479 -0.011339 0.999936
0.044231 -0.576782 -0.168181 0.000479 -0.011339 0.999936
0.049267 -0.576823 -0.168184 0.000479 -0.011339 0.999936
0.054303 -0.576864 -0.168187 0.000479 -0.011339 0.999936
0.059338 -0.576906 -0.168190 0.000479 -0.011339 0.999936
0.064374 -0.576947 -0.168193 0.000479 -0.011339 0.999936
0.069410 -0.576988 -0.168196 0.000479 -0.011339 0.999936
0.074446 -0.577030 -0.168199 0.000479 -0.011339 0.999936
0.079481 -0.577071 -0.168202 0.000479 -0.011339 0.999936
0.084517 -0.577112 -0.168204 0.000479 -0.011339 0.999936
0.089553 -0.577154 -0.168207 0.000479 -0.011339 0.999936
0.094589 -0.577195 -0.168210 0.000479 -0.011339 0.999936
0.099624 -0.577236 -0.168213 0.000479 -0.011339 0.999936
0.104660 -0.577278 -0.168216 0.000479 -0.011339 0.999936
0.109696 -0.577319 -0.168219 0.000479 -0.011339 0.999936
0.114732 -0.577360 -0.168222 0.000479 -0.011339 0.999936
0.119767 -0.577401 -0.168225 0.000479 -0.011339 0.999936
0.124803 -0.577443 -0.168227 0.000479 -0.011339 0.999936
0.129839 -0.577484 -0.168230 0.000479 -0.011339 0.999936
0.134875 -0.577525 -0.168233 0.000479 -0.011339 0.999936
0.139910 -0.577567 -0.168236 0.000479 -0.011339 0.999936
0.144946 -0.577608 -0.168239 0.000479 -0.011339 0.999936
0.149982 -0.577649 -0.168242 0.000479 -0.011339 0.999936
0.155018 -0.577691 -0.168245 0.000479 -0.011339 0.999936
0.160053 -0.577732 -0.168248 0.000479 -0.011339 0.999936
0.165089 -0.577773 -0.168251 0.000479 -0.011339 0.999936
0.170125 -0.577815 -0.168253 0.000479 -0.011339 0.999936
0.175161 -0.577856 -0.168256 0.000479 -0.011339 0.999936
0.180196 -0.577897 -0.168259 0.000479 -0.011339 0.999936
0.185232 -0.577938 -0.168262 0.000479 -0.011339 0.999936
0.190268 -0.577980 -0.168265 0.000479 -0.011339 0.999936
0.195304 -0.578021 -0.168268 0.000479 -0.011339 0.999936
0.200339 -0.578062 -0.168271 0.000479 -0.011339 0.999936
0.205375 -0.578104 -0.168274 0.000479 -0.011339 0.999936
0.210411 -0.578145 -0.168276 0.000479 -0.011339 0.999936
0.215447 -0.578186 -0.168279 0.000479 -0.011339 0.999936
0.220482 -0.578228 -0.168282 0.000479 -0.011339 0.999936
0.220208 -0.563226 -0.168112 0.000479 -0.011339 0.999936
0.215164 -0.563184 -0.168109 0.000479 -0.011339 0.999936
0.210120 -0.563143 -0.168106 0.000479 -0.011339 0.999936
0.205077 -0.563102 -0.168103 0.000479 -0.011339 0.999936
0.200033 -0.563060 -0.168100 0.000479 -0.011339 0.999936
0.194989 -0.563019 -0.168098 0.000479 -0.011339 0.999936
0.189945 -0.562978 -0.168095 0.000479 -0.011339 0.999936
0.184902 -0.562936 -0.168092 0.000479 -0.011339 0.999936
0.179858 -0.562895 -0.168089 0.000479 -0.011339 0.999936
0.174814 -0.562853 -0.168086 0.000479 -0.011339 0.999936
0.169771 -0.562812 -0.168083 0.000479 -0.011339 0.999936
0.164727 -0.562771 -0.168080 0.000479 -0.011339 0.999936
0.159683 -0.562729 -0.168077 0.000479 -0.011339 0.999936
0.154640 -0.562688 -0.168074 0.000479 -0.011339 0.999936
0.149596 -0.562647 -0.168072 0.000479 -0.011339 0.999936
0.144552 -0.562605 -0.168069 0.000479 -0.011339 0.999936
0.139508 -0.562564 -0.168066 0.000479 -0.011339 0.999936
0.134465 -0.562523 -0.168063 0.000479 -0.011339 0.999936
0.129421 -0.562481 -0.168060 0.000479 -0.011339 0.999936
0.124377 -0.562440 -0.168057 0.000479 -0.011339 0.999936
0.119334 -0.562398 -0.168054 0.000479 -0.011339 0.999936
0.114290 -0.562357 -0.168051 0.000479 -0.011339 0.999936
0.109246 -0.562316 -0.168048 0.000479 -0.011339 0.999936
0.104203 -0.562274 -0.168046 0.000479 -0.011339 0.999936
0.099159 -0.562233 -0.168043 0.000479 -0.011339 0.999936
0.094115 -0.562192 -0.168040 0.000479 -0.011339 0.999936
0.089071 -0.562150 -0.168037 0.000479 -0.011339 0.999936
0.084028 -0.562109 -0.168034 0.000479 -0.011339 0.999936
0.078984 -0.562067 -0.168031 0.000479 -0.011339 0.999936
0.073940 -0.562026 -0.168028 0.000479 -0.011339 0.999936
0.068897 -0.561985 -0.168025 0.000479 -0.011339 0.999936
0.063853 -0.561943 -0.168023 0.000479 -0.011339 0.999936
0.058809 -0.561902 -0.168020 0.000479 -0.011339 0.999936
0.053766 -0.561861 -0.168017 0.000479 -0.011339 0.999936
0.048722 -0.561819 -0.168014 0.000479 -0.011339 0.999936
0.043678 -0.561778 -0.168011 0.000479 -0.011339 0.999936
0.038634 -0.561736 -0.168008 0.000479 -0.011339 0.999936
0.033591 -0.561695 -0.168005 0.000479 -0.011339 0.999936
0.028547 -0.561654 -0.168002 0.000479 -0.011339 0.999936
0.023503 -0.561612 -0.167999 0.000479 -0.011339 0.999936
0.018460 -0.561571 -0.167997 0.000479 -0.011339 0.999936
0.013416 -0.561530 -0.167994 0.000479 -0.011339 0.999936
0.008372 -0.561488 -0.167991 0.000479 -0.011339 0.999936
0.003329 -0.561447 -0.167988 0.000479 -0.011339 0.999936
-0.001715 -0.561405 -0.167985 0.000479 -0.011339 0.999936
-0.006759 -0.561364 -0.167982 0.000479 -0.011339 0.999936
-0.011803 -0.561323 -0.167979 0.000479 -0.011339 0.999936
-0.016846 -0.561281 -0.167976 0.000479 -0.011339 0.999936
-0.021890 -0.561240 -0.167973 0.000479 -0.011339 0.999936
-0.026934 -0.561199 -0.167971 0.000479 -0.011339 0.999936
-0.031977 -0.561157 -0.167968 0.000479 -0.011339 0.999936
-0.037021 -0.561116 -0.167965 0.000479 -0.011339 0.999936
-0.042065 -0.561074 -0.167962 0.000479 -0.011339 0.999936
-0.047108 -0.561033 -0.167959 0.000479 -0.011339 0.999936
-0.052152 -0.560992 -0.167956 0.000479 -0.011339 0.999936
-0.057196 -0.560950 -0.167953 0.000479 -0.011339 0.999936
-0.062240 -0.560909 -0.167950 0.000479 -0.011339 0.999936
-0.067283 -0.560868 -0.167947 0.000479 -0.011339 0.999936
-0.072327 -0.560826 -0.167945 0.000479 -0.011339 0.999936
-0.077371 -0.560785 -0.167942 0.000479 -0.011339 0.999936
-0.082414 -0.560743 -0.167939 0.000479 -0.011339 0.999936
-0.087458 -0.560702 -0.167936 0.000479 -0.011339 0.999936
-0.092502 -0.560661 -0.167933 0.000479 -0.011339 0.999936
-0.097545 -0.560619 -0.167930 0.000479 -0.011339 0.999936
-0.102589 -0.560578 -0.167927 0.000479 -0.011339 0.999936
-0.107633 -0.560537 -0.167924 0.000479 -0.011339 0.999936
-0.112677 -0.560495 -0.167922 0.000479 -0.011339 0.999936
-0.117720 -0.560454 -0.167919 0.000479 -0.011339 0.999936
-0.122764 -0.560412 -0.167916 0.000479 -0.011339 0.999936
-0.127808 -0.560371 -0.167913 0.000479 -0.011339 0.999936
-0.132851 -0.560330 -0.167910 0.000479 -0.011339 0.999936
-0.137895 -0.560288 -0.167907 0.000479 -0.011339 0.999936
-0.142939 -0.560247 -0.167904 0.000479 -0.011339 0.999936
-0.147982 -0.560206 -0.167901 0.000479 -0.011339 0.999936
-0.153026 -0.560164 -0.167898 0.000479 -0.011339 0.999936
-0.158070 -0.560123 -0.167896 0.000479 -0.011339 0.999936
-0.163114 -0.560082 -0.167893 0.000479 -0.011339 0.999936
-0.168157 -0.560040 -0.167890 0.000479 -0.011339 0.999936
-0.173201 -0.559999 -0.167887 0.000479 -0.011339 0.999936
-0.178245 -0.559957 -0.167884 0.000479 -0.011339 0.999936
-0.183288 -0.559916 -0.167881 0.000479 -0.011339 0.999936
-0.188332 -0.559875 -0.167878 0.000479 -0.011339 0.999936
-0.193376 -0.559833 -0.167875 0.000479 -0.011339 0.999936
-0.198419 -0.559792 -0.167872 0.000479 -0.011339 0.999936
-0.203463 -0.559751 -0.167870 0.000479 -0.011339 0.999936
-0.208507 -0.559709 -0.167867 0.000479 -0.011339 0.999936
-0.213551 -0.559668 -0.167864 0.000479 -0.011339 0.999936
-0.218594 -0.559626 -0.167861 0.000479 -0.011339 0.999936
-0.223638 -0.559585 -0.167858 0.000479 -0.011339 0.999936
-0.228682 -0.559544 -0.167855 0.000479 -0.011339 0.999936
-0.233725 -0.559502 -0.167852 0.000479 -0.011339 0.999936
-0.238769 -0.559461 -0.167849 0.000479 -0.011339 0.999936
-0.243813 -0.559420 -0.167846 0.000479 -0.011339 0.999936
-0.248856 -0.559378 -0.167844 0.000479 -0.011339 0.999936
-0.253900 -0.559337 -0.167841 0.000479 -0.011339 0.999936
-0.258944 -0.559295 -0.167838 0.000479 -0.011339 0.999936
-0.263988 -0.559254 -0.167835 0.000479 -0.011339 0.999936
-0.269031 -0.559213 -0.167832 0.000479 -0.011339 0.999936
-0.274075 -0.559171 -0.167829 0.000479 -0.011339 0.999936
-0.279119 -0.559130 -0.167826 0.000479 -0.011339 0.999936
-0.284162 -0.559089 -0.167823 0.000479 -0.011339 0.999936
-0.289206 -0.559047 -0.167821 0.000479 -0.011339 0.999936
-0.289037 -0.544049 -0.167651 0.000479 -0.011339 0.999936
-0.283998 -0.544090 -0.167653 0.000479 -0.011339 0.999936
-0.278958 -0.544132 -0.167656 0.000479 -0.011339 0.999936
-0.273919 -0.544173 -0.167659 0.000479 -0.011339 0.999936
-0.268880 -0.544214 -0.167662 0.000479 -0.011339 0.999936
-0.263841 -0.544256 -0.167665 0.000479 -0.011339 0.999936
-0.258801 -0.544297 -0.167668 0.000479 -0.011339 0.999936
-0.253762 -0.544338 -0.167671 0.000479 -0.011339 0.999936
-0.248723 -0.544380 -0.167674 0.000479 -0.011339 0.999936
-0.243683 -0.544421 -0.167676 0.000479 -0.011339 0.999936
-0.238644 -0.544462 -0.167679 0.000479 -0.011339 0.999936
-0.233605 -0.544504 -0.167682 0.000479 -0.011339 0.999936
-0.228565 -0.544545 -0.167685 0.000479 -0.011339 0.999936
-0.223526 -0.544586 -0.167688 0.000479 -0.011339 0.999936
-0.218487 -0.544628 -0.167691 0.000479 -0.011339 0.999936
-0.213447 -0.544669 -0.167694 0.000479 -0.011339 0.999936
-0.208408 -0.544710 -0.167697 0.000479 -0.011339 0.999936
-0.203369 -0.544752 -0.167700 0.000479 -0.011339 0.999936
-0.198330 -0.544793 -0.167702 0.000479 -0.011339 0.999936
-0.193290 -0.544834 -0.167705 0.000479 -0.011339 0.999936
-0.188251 -0.544876 -0.167708 0.000479 -0.011339 0.999936
-0.183212 -0.544917 -0.167711 0.000479 -0.011339 0.999936
-0.178172 -0.544958 -0.167714 0.000479 -0.011339 0.999936
-0.173133 -0.545000 -0.167717 0.000479 -0.011339 0.999936
-0.168094 -0.545041 -0.167720 0.000479 -0.011339 0.999936
-0.163054 -0.545082 -0.167723 0.000479 -0.011339 0.999936
-0.158015 -0.545124 -0.167725 0.000479 -0.011339 0.999936
-0.152976 -0.545165 -0.167728 0.000479 -0.011339 0.999936
-0.147936 -0.545206 -0.167731 0.000479 -0.011339 0.999936
-0.142897 -0.545248 -0.167734 0.000479 -0.011339 0.999936
-0.137858 -0.545289 -0.167737 0.000479 -0.011339 0.999936
-0.132819 -0.545330 -0.167740 0.000479 -0.011339 0.999936
-0.127779 -0.545372 -0.167743 0.000479 -0.011339 0.999936
-0.122740 -0.545413 -0.167746 0.000479 -0.011339 0.999936
-0.117701 -0.545454 -0.167749 0.000479 -0.011339 0.999936
-0.112661 -0.545496 -0.167751 0.000479 -0.011339 0.999936
-0.107622 -0.545537 -0.167754 0.000479 -0.011339 0.999936
-0.102583 -0.545579 -0.167757 0.000479 -0.011339 0.999936
-0.097543 -0.545620 -0.167760 0.000479 -0.011339 0.999936
-0.092504 -0.545661 -0.167763 0.000479 -0.011339 0.999936
-0.087465 -0.545703 -0.167766 0.000479 -0.011339 0.999936
-0.082425 -0.545744 -0.167769 0.000479 -0.011339 0.999936
-0.077386 -0.545785 -0.167772 0.000479 -0.011339 0.999936
-0.072347 -0.545827 -0.167774 0.000479 -0.011339 0.999936
-0.067308 -0.545868 -0.167777 0.000479 -0.011339 0.999936
-0.062268 -0.545909 -0.167780 0.000479 -0.011339 0.999936
-0.057229 -0.545951 -0.167783 0.000479 -0.011339 0.999936
-0.052190 -0.545992 -0.167786 0.000479 -0.011339 0.999936
-0.047150 -0.546033 -0.167789 0.000479 -0.011339 0.999936
-0.042111 -0.546075 -0.167792 0.000479 -0.011339 0.999936
-0.037072 -0.546116 -0.167795 0.000479 -0.011339 0.999936
-0.032032 -0.546157 -0.167798 0.000479 -0.011339 0.999936
-0.026993 -0.546199 -0.167800 0.000479 -0.011339 0.999936
-0.021954 -0.546240 -0.167803 0.000479 -0.011339 0.999936
-0.016914 -0.546281 -0.167806 0.000479 -0.011339 0.999936
-0.011875 -0.546323 -0.167809 0.000479 -0.011339 0.999936
-0.006836 -0.546364 -0.167812 0.000479 -0.011339 0.999936
-0.001797 -0.546405 -0.167815 0.000479 -0.011339 0.999936
0.003243 -0.546447 -0.167818 0.000479 -0.011339 0.999936
0.008282 -0.546488 -0.167821 0.000479 -0.011339 0.999936
0.013321 -0.546529 -0.167823 0.000479 -0.011339 0.999936
0.018361 -0.546571 -0.167826 0.000479 -0.011339 0.999936
0.023400 -0.546612 -0.167829 0.000479 -0.011339 0.999936
0.028439 -0.546653 -0.167832 0.000479 -0.011339 0.999936
0.033479 -0.546695 -0.167835 0.000479 -0.011339 0.999936
0.038518 -0.546736 -0.167838 0.000479 -0.011339 0.999936
0.043557 -0.546777 -0.167841 0.000479 -0.011339 0.999936
0.048597 -0.546819 -0.167844 0.000479 -0.011339 0.999936
0.053636 -0.546860 -0.167847 0.000479 -0.011339 0.999936
0.058675 -0.546901 -0.167849 0.000479 -0.011339 0.999936
0.063714 -0.546943 -0.167852 0.000479 -0.011339 0.999936
0.068754 -0.546984 -0.167855 0.000479 -0.011339 0.999936
0.073793 -0.547025 -0.167858 0.000479 -0.011339 0.999936
0.078832 -0.547067 -0.167861 0.000479 -0.011339 0.999936
0.083872 -0.547108 -0.167864 0.000479 -0.011339 0.999936
0.088911 -0.547149 -0.167867 0.000479 -0.011339 0.999936
0.093950 -0.547191 -0.167870 0.000479 -0.011339 0.999936
0.098990 -0.547232 -0.167873 0.000479 -0.011339 0.999936
0.104029 -0.547273 -0.167875 0.000479 -0.011339 0.999936
0.109068 -0.547315 -0.167878 0.000479 -0.011339 0.999936
0.114108 -0.547356 -0.167881 0.000479 -0.011339 0.999936
0.119147 -0.547397 -0.167884 0.000479 -0.011339 0.999936
0.124186 -0.547439 -0.167887 0.000479 -0.011339 0.999936
0.129225 -0.547480 -0.167890 0.000479 -0.011339 0.999936
0.134265 -0.547521 -0.167893 0.000479 -0.011339 0.999936
0.139304 -0.547563 -0.167896 0.000479 -0.011339 0.999936
0.144343 -0.547604 -0.167898 0.000479 -0.011339 0.999936
0.149383 -0.547645 -0.167901 0.000479 -0.011339 0.999936
0.154422 -0.547687 -0.167904 0.000479 -0.011339 0.999936
0.159461 -0.547728 -0.167907 0.000479 -0.011339 0.999936
0.164501 -0.547769 -0.167910 0.000479 -0.011339 0.999936
0.169540 -0.547811 -0.167913 0.000479 -0.011339 0.999936
0.174579 -0.547852 -0.167916 0.000479 -0.011339 0.999936
0.179619 -0.547893 -0.167919 0.000479 -0.011339 0.999936
0.184658 -0.547935 -0.167922 0.000479 -0.011339 0.999936
0.189697 -0.547976 -0.167924 0.000479 -0.011339 0.999936
0.194737 -0.548017 -0.167927 0.000479 -0.011339 0.999936
0.199776 -0.548059 -0.167930 0.000479 -0.011339 0.999936
0.204815 -0.548100 -0.167933 0.000479 -0.011339 0.999936
0.209854 -0.548141 -0.167936 0.000479 -0.011339 0.999936
0.214894 -0.548183 -0.167939 0.000479 -0.011339 0.999936
0.219933 -0.548224 -0.167942 0.000479 -0.011339 0.999936
0.219658 -0.533222 -0.167771 0.000479 -0.011339 0.999936
0.214623 -0.533181 -0.167769 0.000479 -0.011339 0.999936
0.209589 -0.533140 -0.167766 0.000479 -0.011339 0.999936
0.204554 -0.533098 -0.167763 0.000479 -0.011339 0.999936
0.199519 -0.533057 -0.167760 0.000479 -0.011339 0.999936
0.194484 -0.533016 -0.167757 0.000479 -0.011339 0.999936
0.189449 -0.532974 -0.167754 0.000479 -0.011339 0.999936
0.184414 -0.532933 -0.167751 0.000479 -0.011339 0.999936
0.179379 -0.532892 -0.167748 0.000479 -0.011339 0.999936
0.174344 -0.532851 -0.167746 0.000479 -0.011339 0.999936
0.169309 -0.532809 -0.167743 0.000479 -0.011339 0.999936
0.164274 -0.532768 -0.167740 0.000479 -0.011339 0.999936
0.159239 -0.532727 -0.167737 0.000479 -0.011339 0.999936
0.154204 -0.532685 -0.167734 0.000479 -0.011339 0.999936
0.149170 -0.532644 -0.167731 0.000479 -0.011339 0.999936
0.144135 -0.532603 -0.167728 0.000479 -0.011339 0.999936
0.139100 -0.532561 -0.167725 0.000479 -0.011339 0.999936
0.134065 -0.532520 -0.167722 0.000479 -0.011339 0.999936
0.129030 -0.532479 -0.167720 0.000479 -0.011339 0.999936
0.123995 -0.532438 -0.167717 0.000479 -0.011339 0.999936
0.118960 -0.532396 -0.167714 0.000479 -0.011339 0.999936
0.113925 -0.532355 -0.167711 0.000479 -0.011339 0.999936
0.108890 -0.532314 -0.167708 0.000479 -0.011339 0.999936
0.103855 -0.532272 -0.167705 0.000479 -0.011339 0.999936
0.098820 -0.532231 -0.167702 0.000479 -0.011339 0.999936
0.093786 -0.532190 -0.167699 0.000479 -0.011339 0.999936
0.088751 -0.532148 -0.167697 0.000479 -0.011339 0.999936
0.083716 -0.532107 -0.167694 0.000479 -0.011339 0.999936
0.078681 -0.532066 -0.167691 0.000479 -0.011339 0.999936
0.073646 -0.532025 -0.167688 0.000479 -0.011339 0.999936
0.068611 -0.531983 -0.167685 0.000479 -0.011339 0.999936
0.063576 -0.531942 -0.167682 0.000479 -0.011339 0.999936
0.058541 -0.531901 -0.167679 0.000479 -0.011339 0.999936
0.053506 -0.531859 -0.167676 0.000479 -0.011339 0.999936
0.048471 -0.531818 -0.167674 0.000479 -0.011339 0.999936
0.043436 -0.531777 -0.167671 0.000479 -0.011339 0.999936
0.038401 -0.531735 -0.167668 0.000479 -0.011339 0.999936
0.033367 -0.531694 -0.167665 0.000479 -0.011339 0.999936
0.028332 -0.531653 -0.167662 0.000479 -0.011339 0.999936
0.023297 -0.531612 -0.167659 0.000479 -0.011339 0.999936
0.018262 -0.531570 -0.167656 0.000479 -0.011339 0.999936
0.013227 -0.531529 -0.167653 0.000479 -0.011339 0.999936
0.008192 -0.531488 -0.167650 0.000479 -0.011339 0.999936
0.003157 -0.531446 -0.167648 0.000479 -0.011339 0.999936
-0.001878 -0.531405 -0.167645 0.000479 -0.011339 0.999936
-0.006913 -0.531364 -0.167642 0.000479 -0.011339 0.999936
-0.011948 -0.531322 -0.167639 0.000479 -0.011339 0.999936
-0.016983 -0.531281 -0.167636 0.000479 -0.011339 0.999936
-0.022018 -0.531240 -0.167633 0.000479 -0.011339 0.999936
-0.027052 -0.531199 -0.167630 0.000479 -0.011339 0.999936
-0.032087 -0.531157 -0.167627 0.000479 -0.011339 0.999936
-0.037122 -0.531116 -0.167625 0.000479 -0.011339 0.999936
-0.042157 -0.531075 -0.167622 0.000479 -0.011339 0.999936
-0.047192 -0.531033 -0.167619 0.000479 -0.011339 0.999936
-0.052227 -0.530992 -0.167616 0.000479 -0.011339 0.999936
-0.057262 -0.530951 -0.167613 0.000479 -0.011339 0.999936
-0.062297 -0.530909 -0.167610 0.000479 -0.011339 0.999936
-0.067332 -0.530868 -0.167607 0.000479 -0.011339 0.999936
-0.072367 -0.530827 -0.167604 0.000479 -0.011339 0.999936
-0.077402 -0.530786 -0.167601 0.000479 -0.011339 0.999936
-0.082437 -0.530744 -0.167599 0.000479 -0.011339 0.999936
-0.087471 -0.530703 -0.167596 0.000479 -0.011339 0.999936
-0.092506 -0.530662 -0.167593 0.000479 -0.011339 0.999936
-0.097541 -0.530620 -0.167590 0.000479 -0.011339 0.999936
-0.102576 -0.530579 -0.167587 0.000479 -0.011339 0.999936
-0.107611 -0.530538 -0.167584 0.000479 -0.011339 0.999936
-0.112646 -0.530496 -0.167581 0.000479 -0.011339 0.999936
-0.117681 -0.530455 -0.167578 0.000479 -0.011339 0.999936
-0.122716 -0.530414 -0.167576 0.000479 -0.011339 0.999936
-0.127751 -0.530373 -0.167573 0.000479 -0.011339 0.999936
-0.132786 -0.530331 -0.167570 0.000479 -0.011339 0.999936
-0.137821 -0.530290 -0.167567 0.000479 -0.011339 0.999936
-0.142856 -0.530249 -0.167564 0.000479 -0.011339 0.999936
-0.147890 -0.530207 -0.167561 0.000479 -0.011339 0.999936
-0.152925 -0.530166 -0.167558 0.000479 -0.011339 0.999936
-0.157960 -0.530125 -0.167555 0.000479 -0.011339 0.999936
-0.162995 -0.530083 -0.167553 0.000479 -0.011339 0.999936
-0.168030 -0.530042 -0.167550 0.000479 -0.011339 0.999936
-0.173065 -0.530001 -0.167547 0.000479 -0.011339 0.999936
-0.178100 -0.529960 -0.167544 0.000479 -0.011339 0.999936
-0.183135 -0.529918 -0.167541 0.000479 -0.011339 0.999936
-0.188170 -0.529877 -0.167538 0.000479 -0.011339 0.999936
-0.193205 -0.529836 -0.167535 0.000479 -0.011339 0.999936
-0.198240 -0.529794 -0.167532 0.000479 -0.011339 0.999936
-0.203275 -0.529753 -0.167529 0.000479 -0.011339 0.999936
-0.208309 -0.529712 -0.167527 0.000479 -0.011339 0.999936
-0.213344 -0.529670 -0.167524 0.000479 -0.011339 0.999936
-0.218379 -0.529629 -0.167521 0.000479 -0.011339 0.999936
-0.223414 -0.529588 -0.167518 0.000479 -0.011339 0.999936
-0.228449 -0.529546 -0.167515 0.000479 -0.011339 0.999936
-0.233484 -0.529505 -0.167512 0.000479 -0.011339 0.999936
-0.238519 -0.529464 -0.167509 0.000479 -0.011339 0.999936
-0.243554 -0.529423 -0.167506 0.000479 -0.011339 0.999936
-0.248589 -0.529381 -0.167504 0.000479 -0.011339 0.999936
-0.253624 -0.529340 -0.167501 0.000479 -0.011339 0.999936
-0.258659 -0.529299 -0.167498 0.000479 -0.011339 0.999936
-0.263694 -0.529257 -0.167495 0.000479 -0.011339 0.999936
-0.268728 -0.529216 -0.167492 0.000479 -0.011339 0.999936
-0.273763 -0.529175 -0.167489 0.000479 -0.011339 0.999936
-0.278798 -0.529133 -0.167486 0.000479 -0.011339 0.999936
-0.283833 -0.529092 -0.167483 0.000479 -0.011339 0.999936
-0.288868 -0.529051 -0.167481 0.000479 -0.011339 0.999936
-0.288629 -0.514053 -0.167311 0.000479 -0.011339 0.999936
-0.283612 -0.514094 -0.167313 0.000479 -0.011339 0.999936
-0.278596 -0.514136 -0.167316 0.000479 -0.011339 0.999936
-0.273580 -0.514177 -0.167319 0.000479 -0.011339 0.999936
-0.268564 -0.514218 -0.167322 0.000479 -0.011339 0.999936
-0.263548 -0.514259 -0.167325 0.000479 -0.011339 0.999936
-0.258532 -0.514300 -0.167328 0.000479 -0.011339 0.999936
-0.253516 -0.514341 -0.167331 0.000479 -0.011339 0.999936
-0.248500 -0.514382 -0.167334 0.000479 -0.011339 0.999936
-0.243484 -0.514424 -0.167336 0.000479 -0.011339 0.999936
-0.238467 -0.514465 -0.167339 0.000479 -0.011339 0.999936
-0.233451 -0.514506 -0.167342 0.000479 -0.011339 0.999936
-0.228435 -0.514547 -0.167345 0.000479 -0.011339 0.999936
-0.223419 -0.514588 -0.167348 0.000479 -0.011339 0.999936
-0.218403 -0.514629 -0.167351 0.000479 -0.011339 0.999936
-0.213387 -0.514671 -0.167354 0.000479 -0.011339 0.999936
-0.208371 -0.514712 -0.167356 0.000479 -0.011339 0.999936
-0.203355 -0.514753 -0.167359 0.000479 -0.011339 0.999936
-0.198338 -0.514794 -0.167362 0.000479 -0.011339 0.999936
-0.193322 -0.514835 -0.167365 0.000479 -0.011339 0.999936
-0.188306 -0.514876 -0.167368 0.000479 -0.011339 0.999936
-0.183290 -0.514917 -0.167371 0.000479 -0.011339 0.999936
-0.178274 -0.514959 -0.167374 0.000479 -0.011339 0.999936
-0.173258 -0.515000 -0.167377 0.000479 -0.011339 0.999936
-0.168242 -0.515041 -0.167379 0.000479 -0.011339 0.999936
-0.163226 -0.515082 -0.167382 0.000479 -0.011339 0.999936
-0.158209 -0.515123 -0.167385 0.000479 -0.011339 0.999936
-0.153193 -0.515164 -0.167388 0.000479 -0.011339 0.999936
-0.148177 -0.515205 -0.167391 0.000479 -0.011339 0.999936
-0.143161 -0.515247 -0.167394 0.000479 -0.011339 0.999936
-0.138145 -0.515288 -0.167397 0.000479 -0.011339 0.999936
-0.133129 -0.515329 -0.167400 0.000479 -0.011339 0.999936
-0.128113 -0.515370 -0.167402 0.000479 -0.011339 0.999936
-0.123097 -0.515411 -0.167405 0.000479 -0.011339 0.999936
-0.118080 -0.515452 -0.167408 0.000479 -0.011339 0.999936
-0.113064 -0.515493 -0.167411 0.000479 -0.011339 0.999936
-0.108048 -0.515535 -0.167414 0.000479 -0.011339 0.999936
-0.103032 -0.515576 -0.167417 0.000479 -0.011339 0.999936
-0.098016 -0.515617 -0.167420 0.000479 -0.011339 0.999936
-0.093000 -0.515658 -0.167422 0.000479 -0.011339 0.999936
-0.087984 -0.515699 -0.167425 0.000479 -0.011339 0.999936
-0.082968 -0.515740 -0.167428 0.000479 -0.011339 0.999936
-0.077952 -0.515781 -0.167431 0.000479 -0.011339 0.999936
-0.072935 -0.515823 -0.167434 0.000479 -0.011339 0.999936
-0.067919 -0.515864 -0.167437 0.000479 -0.011339 0.999936
-0.062903 -0.515905 -0.167440 0.000479 -0.011339 0.999936
-0.057887 -0.515946 -0.167443 0.000479 -0.011339 0.999936
-0.052871 -0.515987 -0.167445 0.000479 -0.011339 0.999936
-0.047855 -0.516028 -0.167448 0.000479 -0.011339 0.999936
-0.042839 -0.516069 -0.167451 0.000479 -0.011339 0.999936
-0.037823 -0.516111 -0.167454 0.000479 -0.011339 0.999936
-0.032806 -0.516152 -0.167457 0.000479 -0.011339 0.999936
-0.027790 -0.516193 -0.167460 0.000479 -0.011339 0.999936
-0.022774 -0.516234 -0.167463 0.000479 -0.011339 0.999936
-0.017758 -0.516275 -0.167466 0.000479 -0.011339 0.999936
-0.012742 -0.516316 -0.167468 0.000479 -0.011339 0.999936
-0.007726 -0.516358 -0.167471 0.000479 -0.011339 0.999936
-0.002710 -0.516399 -0.167474 0.000479 -0.011339 0.999936
0.002306 -0.516440 -0.167477 0.000479 -0.011339 0.999936
0.007323 -0.516481 -0.167480 0.000479 -0.011339 0.999936
0.012339 -0.516522 -0.167483 0.000479 -0.011339 0.999936
0.017355 -0.516563 -0.167486 0.000479 -0.011339 0.999936
0.022371 -0.516604 -0.167488 0.000479 -0.011339 0.999936
0.027387 -0.516646 -0.167491 0.000479 -0.011339 0.999936
0.032403 -0.516687 -0.167494 0.000479 -0.011339 0.999936
0.037419 -0.516728 -0.167497 0.000479 -0.011339 0.999936
0.042435 -0.516769 -0.167500 0.000479 -0.011339 0.999936
0.047451 -0.516810 -0.167503 0.000479 -0.011339 0.999936
0.052468 -0.516851 -0.167506 0.000479 -0.011339 0.999936
0.057484 -0.516892 -0.167509 0.000479 -0.011339 0.999936
0.062500 -0.516934 -0.167511 0.000479 -0.011339 0.999936
0.067516 -0.516975 -0.167514 0.000479 -0.011339 0.999936
0.072532 -0.517016 -0.167517 0.000479 -0.011339 0.999936
0.077548 -0.517057 -0.167520 0.000479 -0.011339 0.999936
0.082564 -0.517098 -0.167523 0.000479 -0.011339 0.999936
0.087580 -0.517139 -0.167526 0.000479 -0.011339 0.999936
0.092597 -0.517180 -0.167529 0.000479 -0.011339 0.999936
0.097613 -0.517222 -0.167532 0.000479 -0.011339 0.999936
0.102629 -0.517263 -0.167534 0.000479 -0.011339 0.999936
0.107645 -0.517304 -0.167537 0.000479 -0.011339 0.999936
0.112661 -0.517345 -0.167540 0.000479 -0.011339 0.999936
0.117677 -0.517386 -0.167543 0.000479 -0.011339 0.999936
0.122693 -0.517427 -0.167546 0.000479 -0.011339 0.999936
0.127709 -0.517468 -0.167549 0.000479 -0.011339 0.999936
0.132726 -0.517510 -0.167552 0.000479 -0.011339 0.999936
0.137742 -0.517551 -0.167554 0.000479 -0.011339 0.999936
0.142758 -0.517592 -0.167557 0.000479 -0.011339 0.999936
0.147774 -0.517633 -0.167560 0.000479 -0.011339 0.999936
0.152790 -0.517674 -0.167563 0.000479 -0.011339 0.999936
0.157806 -0.517715 -0.167566 0.000479 -0.011339 0.999936
0.162822 -0.517756 -0.167569 0.000479 -0.011339 0.999936
0.167838 -0.517798 -0.167572 0.000479 -0.011339 0.999936
0.172855 -0.517839 -0.167575 0.000479 -0.011339 0.999936
0.177871 -0.517880 -0.167577 0.000479 -0.011339 0.999936
0.182887 -0.517921 -0.167580 0.000479 -0.011339 0.999936
0.187903 -0.517962 -0.167583 0.000479 -0.011339 0.999936
0.192919 -0.518003 -0.167586 0.000479 -0.011339 0.999936
0.197935 -0.518045 -0.167589 0.000479 -0.011339 0.999936
0.202951 -0.518086 -0.167592 0.000479 -0.011339 0.999936
0.207967 -0.518127 -0.167595 0.000479 -0.011339 0.999936
0.212983 -0.518168 -0.167598 0.000479 -0.011339 0.999936
0.218000 -0.518209 -0.167600 0.000479 -0.011339 0.999936
0.214185 -0.503178 -0.167428 0.000479 -0.011339 0.999936
0.209162 -0.503137 -0.167425 0.000479 -0.011339 0.999936
0.204140 -0.503096 -0.167422 0.000479 -0.011339 0.999936
0.199117 -0.503055 -0.167419 0.000479 -0.011339 0.999936
0.194094 -0.503013 -0.167417 0.000479 -0.011339 0.999936
0.189072 -0.502972 -0.167414 0.000479 -0.011339 0.999936
0.184049 -0.502931 -0.167411 0.000479 -0.011339 0.999936
0.179026 -0.502890 -0.167408 0.000479 -0.011339 0.999936
0.174003 -0.502849 -0.167405 0.000479 -0.011339 0.999936
0.168981 -0.502807 -0.167402 0.000479 -0.011339 0.999936
0.163958 -0.502766 -0.167399 0.000479 -0.011339 0.999936
0.158935 -0.502725 -0.167397 0.000479 -0.011339 0.999936
0.153913 -0.502684 -0.167394 0.000479 -0.011339 0.999936
0.148890 -0.502643 -0.167391 0.000479 -0.011339 0.999936
0.143867 -0.502601 -0.167388 0.000479 -0.011339 0.999936
0.138844 -0.502560 -0.167385 0.000479 -0.011339 0.999936
0.133822 -0.502519 -0.167382 0.000479 -0.011339 0.999936
0.128799 -0.502478 -0.167379 0.000479 -0.011339 0.999936
